# .PCD v0.7 - Point Cloud Data file format
VERSION 0.7
FIELDS x y z rgb
SIZE 4 4 4 4
TYPE F F F U
COUNT 1 1 1 1
WIDTH 438
HEIGHT 1
VIEWPOINT 0 0 0 1 0 0 0
POINTS 438
DATA ascii
-0.041280702 0.0063033104 -0.079663873 1266679807
0.035716001 0.012221575 -0.079775333 1266679807
-0.03700655 0.018408298 -0.079195619 1266679807
0.032860901 0.0189749 -0.077826858 1266679807
0.027413126 0.026504576 -0.082904577 1266679807
-0.041035 0.0071192384 -0.070742965 1266679807
-0.038150501 0.016680419 -0.06915462 1266679807
0.035505701 0.012973189 -0.070934772 1266679807
-0.035476599 0.020840526 -0.073334336 1266679807
0.030012799 0.02342099 -0.074228764 1266679807
0.032694198 0.019250274 -0.070066094 1266679807
-0.032795001 0.025015056 -0.077520728 1266679807
-0.028678901 0.029036462 -0.078502297 1266679807
0.021791499 0.031709731 -0.075544953 1266679807
0.025868949 0.02817744 -0.073401332 1266679807
-0.024590001 0.032580912 -0.080651522 1266679807
-0.019078232 0.035530627 -0.078194499 1266679807
-0.010910183 0.038504124 -0.080530047 1266679807
-0.00408311 0.039535522 -0.077947259 1266679807
0.0027249434 0.039185286 -0.078824639 1266679807
0.01091386 0.037397027 -0.080855966 1266679807
0.01773805 0.03440398 -0.07978034 1266679807
-0.0027337 0.039728582 -0.084822893 1266679807
-0.040792201 0.0079254508 -0.061927676 1266679807
-0.037957098 0.016973495 -0.061457396 1266679807
0.033913448 0.016619325 -0.062290788 1266679807
-0.0334627 0.023970306 -0.065801382 1266679807
0.028478399 0.025400519 -0.065883398 1266679807
-0.026590461 0.030844986 -0.069037914 1266679807
-0.021682801 0.034347653 -0.069051385 1266679807
0.018971667 0.033586323 -0.068526864 1266679807
0.0243915 0.029468834 -0.066677213 1266679807
-0.017639451 0.036192656 -0.07171011 1266679807
-0.010858309 0.038522482 -0.073178768 1266679807
-0.0040637897 0.039546013 -0.070631146 1266679807
0.00271204 0.039193034 -0.071509361 1266679807
0.01085272 0.037462175 -0.072188854 1266679807
0.0163162 0.03505981 -0.074514031 1266679807
-0.040552299 0.0087255836 -0.053209066 1266679807
0.035092302 0.01445061 -0.053561449 1266679807
-0.036442 0.019327641 -0.055885196 1266679807
0.032365602 0.019794762 -0.054773569 1266679807
-0.032299999 0.02577132 -0.054448843 1266679807
-0.028759599 0.028967261 -0.058451056 1266679807
0.0269833 0.02691853 -0.058694839 1266679807
-0.0242343 0.032888174 -0.058352232 1266679807
-0.018882126 0.035628796 -0.062322259 1266679807
-0.0134548 0.038108289 -0.059793234 1266679807
0.010780561 0.037467539 -0.061370254 1266679807
0.018881133 0.03365165 -0.061220407 1266679807
-0.010806923 0.038540423 -0.065897822 1266679807
-0.0040446501 0.039553165 -0.06339097 1266679807
0.0026992566 0.039203107 -0.064257503 1266679807
0.0081058498 0.038424373 -0.066185713 1266679807
-0.040315099 0.0095106363 -0.044604659 1266679807
0.037520301 0.0062206984 -0.03872335 1266679807
-0.037576299 0.017560542 -0.046272993 1266679807
0.034889199 0.015175283 -0.045028329 1266679807
-0.033949133 0.023202538 -0.046704292 1266679807
0.0294884 0.024293244 -0.047569752 1266679807
0.032203801 0.020063221 -0.04724133 1266679807
-0.026791699 0.030671656 -0.04966116 1266679807
0.020100251 0.033001959 -0.051029205 1266679807
0.02549665 0.028536022 -0.051308036 1266679807
-0.018778132 0.035676837 -0.053915024 1266679807
-0.01018598 0.038659811 -0.054174066 1266679807
-0.0040256903 0.039560914 -0.056217074 1266679807
0.0033523 0.039116859 -0.055535793 1266679807
0.011390593 0.037229836 -0.053069592 1266679807
0.017448399 0.034567475 -0.05426383 1266679807
0.037304699 0.0069894195 -0.030332088 1266679807
-0.040080801 0.010288417 -0.036096215 1266679807
-0.035991501 0.020017743 -0.03711319 1266679807
0.029269001 0.024660587 -0.036409378 1266679807
0.033366047 0.018110693 -0.038187981 1266679807
-0.029324032 0.028477907 -0.041054487 1266679807
0.022600699 0.031066298 -0.038320541 1266679807
0.026644301 0.02755636 -0.039817572 1266679807
-0.0240028 0.033089757 -0.043837547 1266679807
-0.0204382 0.034923732 -0.044056296 1266679807
-0.013313167 0.037919283 -0.043772459 1266679807
-0.0066517349 0.039192557 -0.04300344 1266679807
0.0039943922 0.039035499 -0.043385506 1266679807
0.0133103 0.036469519 -0.042633057 1266679807
0.018673467 0.033795953 -0.04445374 1266679807
0.024041999 0.029804885 -0.044788361 1266679807
-0.0160322 0.036935151 -0.048499346 1266679807
-0.004006905 0.039568841 -0.049109578 1266679807
0.001336365 0.039411664 -0.049494147 1266679807
0.010673 0.037673056 -0.046702981 1266679807
-0.039849099 0.01105839 -0.027683616 1266679807
0.037091501 0.0077496767 -0.022036195 1266679807
-0.037111051 0.018271983 -0.027737141 1266679807
0.031727999 0.020852864 -0.025089741 1266679807
0.0344938 0.01653856 -0.028396249 1266679807
-0.034423001 0.022452414 -0.028064489 1266679807
-0.0318316 0.026306212 -0.0325315 1266679807
0.029154934 0.024410307 -0.030209541 1266679807
-0.027861249 0.029745519 -0.034609675 1266679807
-0.022533249 0.033888638 -0.035007954 1266679807
0.015861399 0.035319448 -0.031581521 1266679807
0.021178598 0.032142162 -0.032328725 1266679807
-0.0185735 0.035776675 -0.037366867 1266679807
-0.013251166 0.037944794 -0.036752224 1266679807
-0.0046361899 0.039483845 -0.037073493 1266679807
0.003975905 0.039045155 -0.036397457 1266679807
0.012595201 0.03680563 -0.036619067 1266679807
0.036880799 0.0084967613 -0.013844371 1266679807
-0.039620101 0.011820138 -0.019366145 1266679807
0.0341562 0.017096758 -0.013904452 1266679807
-0.035545252 0.020700753 -0.018801332 1266679807
0.031572498 0.021110952 -0.017850637 1266679807
0.034324199 0.016819954 -0.0211128 1266679807
-0.0294916 0.028333545 -0.022370338 1266679807
0.0237025 0.030133307 -0.023514032 1266679807
0.027656149 0.026497424 -0.021973133 1266679807
-0.0264119 0.031002462 -0.028222442 1266679807
-0.02108158 0.034597576 -0.02648294 1266679807
-0.0144764 0.037652373 -0.025994062 1266679807
0.0078826901 0.038493097 -0.023980737 1266679807
0.013166633 0.03655678 -0.026343822 1266679807
0.0197678 0.033273578 -0.026230693 1266679807
-0.01188015 0.038435042 -0.030965686 1266679807
-0.0052713533 0.039399266 -0.028643727 1266679807
0.0039575878 0.039053082 -0.029477239 1266679807
0.036672398 0.0092384815 -0.0057383776 1266679807
-0.0380252 0.015770376 -0.010389686 1266679807
0.033989798 0.017368674 -0.0067710876 1266679807
-0.034085602 0.022969425 -0.013564467 1266679807
-0.0313843 0.026692748 -0.011549115 1266679807
0.030129349 0.023368895 -0.01264739 1266679807
-0.02746965 0.030085146 -0.013588786 1266679807
-0.0235528 0.033479393 -0.015629411 1266679807
0.020952901 0.032325268 -0.016113639 1266679807
0.0262073 0.027974486 -0.015192151 1266679807
-0.019649699 0.035292625 -0.018058419 1266679807
-0.012446475 0.038168311 -0.019666791 1266679807
-0.0058950651 0.039314389 -0.020319939 1266679807
0.0039268117 0.039067268 -0.019216895 1266679807
0.013095925 0.036598742 -0.018333554 1266679807
0.0183772 0.034181714 -0.020690441 1266679807
-0.039059252 0.013683856 0.00099921227 1266679807
0.036466401 0.0099743605 0.0022819042 1266679807
-0.035116501 0.021357834 -0.00093531609 1266679807
0.031266 0.021621346 -0.0035792589 1266679807
0.033825099 0.017643809 0.00030565262 1266679807
-0.033919401 0.023223221 -0.0064226389 1266679807
-0.02993935 0.027945817 -0.0053588152 1266679807
0.023372401 0.030452788 -0.002831459 1266679807
0.027327575 0.026935756 -0.0044243336 1266679807
-0.0260424 0.031323314 -0.0073860884 1266679807
-0.020838251 0.034754276 -0.0092976093 1266679807
-0.0155924 0.037149906 -0.0069804192 1266679807
0.0143247 0.036045611 -0.0095824003 1266679807
0.0208367 0.03248024 -0.0079916716 1266679807
-0.013033167 0.038027823 -0.011578918 1266679807
-0.0046859444 0.039494991 -0.010785937 1266679807
0.0031229039 0.03919071 -0.010165215 1266679807
0.0104285 0.037824094 -0.012061357 1266679807
0.036262698 0.010695636 0.010198832 1266679807
-0.037428051 0.017279446 0.012231946 1266679807
0.033661898 0.01790905 0.007298708 1266679807
-0.03494655 0.021617234 0.0060881376 1266679807
0.030168032 0.023352444 0.0068091154 1266679807
-0.028507465 0.029185712 0.00077164173 1266679807
-0.023230501 0.033665836 0.0046186447 1266679807
0.02197405 0.031672359 0.0032588243 1266679807
0.025844101 0.028319538 0.0052690506 1266679807
-0.020062426 0.035111487 -0.00019860268 1266679807
-0.012939299 0.038124084 -0.0013798475 1266679807
-0.0051760301 0.039430261 -0.0016071796 1266679807
0.0038859725 0.039087951 -0.0024139881 1266679807
0.012946939 0.036686361 -0.0014548302 1266679807
0.018126201 0.034320951 -0.00039815903 1266679807
-0.041255601 0.006169498 0.018962622 1266679807
-0.0385135 0.015495896 0.020814776 1266679807
0.036061302 0.011414468 0.018039703 1266679807
-0.0359529 0.020047963 0.018416405 1266679807
0.0308173 0.022363126 0.017303705 1266679807
0.033500299 0.018176854 0.014235377 1266679807
-0.033430301 0.023973882 0.014599681 1266679807
-0.030000767 0.027893007 0.012864232 1266679807
0.027008601 0.027323067 0.012635231 1266679807
-0.026620267 0.030820429 0.0088547468 1266679807
-0.020571167 0.034883678 0.009604454 1266679807
0.01413065 0.036159873 0.010401368 1266679807
0.019938175 0.033079505 0.009749651 1266679807
-0.012222201 0.038238347 0.0070986748 1266679807
-0.0057890853 0.039348543 0.0064237118 1266679807
0.0044112015 0.03902024 0.0068223476 1266679807
0.01158765 0.037318766 0.0065895319 1266679807
-0.028048901 -0.029289722 0.051727653 1266679807
-0.040911652 0.0073164105 0.030642152 1266679807
-0.038299501 0.016206264 0.028582454 1266679807
0.034521952 0.015411735 0.026845336 1266679807
-0.0345257 0.022263646 0.02336359 1266679807
0.0306706 0.02260524 0.02413106 1266679807
0.033340301 0.018442571 0.021106839 1266679807
-0.028116001 0.02952528 0.020823359 1266679807
0.022132834 0.031563759 0.021226287 1266679807
0.026885051 0.027438521 0.019262314 1266679807
-0.0204632 0.034935117 0.017242551 1266679807
-0.013427599 0.037901282 0.016049743 1266679807
-0.0051067732 0.039454281 0.018039823 1266679807
0.0038339375 0.039113462 0.017249942 1266679807
0.012791666 0.03677851 0.016139269 1266679807
0.019188151 0.033715725 0.017648339 1266679807
-0.00384542 0.039629936 0.011977792 1266679807
0 0.039661586 0.012051105 1266679807
-0.033087999 -0.02359432 0.05173099 1266679807
-0.030529 -0.02563715 0.053334713 1266679807
0.027910834 -0.024102032 0.056407094 1266679807
-0.0380737 -0.015093505 0.051728249 1266679807
0.03426335 -0.017379999 0.052838564 1266679807
-0.0405728 0.0084434748 0.042143464 1266679807
0.035665099 0.012825906 0.033457756 1266679807
-0.036857203 0.018628538 0.033907533 1266679807
0.033024698 0.018962145 0.034645677 1266679807
-0.033033449 0.024579525 0.031645656 1266679807
-0.0305265 0.027439535 0.02870667 1266679807
0.027960476 0.026162446 0.030524254 1266679807
-0.026718549 0.030736208 0.026728153 1266679807
-0.020951349 0.034717202 0.027884126 1266679807
0.0152247 0.03568095 0.028504968 1266679807
0.020317534 0.032874763 0.02842319 1266679807
0.0254908 0.028659701 0.025180697 1266679807
-0.0178247 0.036141932 0.023214459 1266679807
-0.01219422 0.038303256 0.025624871 1266679807
-0.0050840997 0.039460599 0.024469614 1266679807
0.0045742383 0.039013982 0.024713159 1266679807
0.01208815 0.037109196 0.023839235 1266679807
-0.029010899 -0.019548595 0.062693357 1266679807
-0.034558266 -0.015213251 0.057231069 1266679807
0.0302242 -0.015225947 0.06290102 1266679807
0.032829799 -0.014463723 0.058749914 1266679807
-0.040500902 -0.0066394806 0.051725268 1266679807
-0.037891898 -0.0077716708 0.055199146 1266679807
0.036174536 -0.0072302222 0.056303859 1266679807
-0.040427234 -0.0010285974 0.051727653 1266679807
0.037829898 1.8179417e-05 0.05391717 1266679807
-0.040340401 0.0070329905 0.051050782 1266679807
-0.037923299 0.016965747 0.042472839 1266679807
0.035470199 0.013517678 0.041035175 1266679807
-0.0345059 0.022283196 0.041949749 1266679807
0.030309999 0.023204803 0.040920734 1266679807
0.032869201 0.019219697 0.041322351 1266679807
-0.028290939 0.02937454 0.038017392 1266679807
0.022739001 0.031063735 0.03684783 1266679807
0.026520848 0.027784646 0.038796186 1266679807
-0.0253335 0.031936049 0.032579303 1266679807
-0.0201906 0.035068631 0.036533475 1266679807
-0.0132493 0.037968874 0.035294056 1266679807
-0.0063003553 0.039294302 0.036750436 1266679807
0.00378328 0.039137661 0.036393166 1266679807
0.012630749 0.036873102 0.034368038 1266679807
0.018527968 0.03412652 0.035441637 1266679807
-0.0050616232 0.039469004 0.030846715 1266679807
0.0025321599 0.039313018 0.030489087 1266679807
0.026383549 -0.017256439 0.067290306 1266679807
-0.032655448 -0.01027751 0.064411283 1266679807
-0.030087801 -0.012630045 0.068145275 1266679807
0.0301059 -0.01069808 0.066394806 1266679807
0.032726601 -0.010378718 0.061346889 1266679807
-0.035161231 -0.0044864416 0.061964631 1266679807
0.033231772 -0.0031098723 0.063358426 1266679807
-0.036387917 0.0028313398 0.059799314 1266679807
0.035139132 0.0026930571 0.059510708 1266679807
-0.0363717 0.0098919868 0.057119489 1266679807
0.03618028 0.0085291266 0.055407882 1266679807
-0.035764389 0.01755029 0.052767634 1266679807
0.033626556 0.017367601 0.052963853 1266679807
-0.032613002 0.024571419 0.050015092 1266679807
-0.0300803 0.027272701 0.049897552 1266679807
0.028853551 0.025599897 0.049237728 1266679807
-0.026358251 0.03104955 0.046073079 1266679807
-0.0213356 0.034547567 0.044673681 1266679807
0.0150237 0.035794199 0.047474265 1266679807
0.020579999 0.03276217 0.0455935 1266679807
0.025147 0.028986692 0.044546843 1266679807
-0.017588301 0.036257327 0.042337298 1266679807
-0.012551633 0.038193941 0.042574406 1266679807
-0.0043922798 0.039572775 0.042071223 1266679807
0.0037666899 0.039146543 0.042664409 1266679807
0.011928099 0.037204862 0.042924285 1266679807
-0.027516199 -0.013561547 0.071900845 1266679807
0.0249178 -0.011338532 0.076370001 1266679807
-0.029098867 -0.007350564 0.073190093 1266679807
0.028310701 -0.0082182884 0.071428418 1266679807
-0.032475501 -0.0014734268 0.068169355 1266679807
-0.029862599 -0.0015774369 0.073650002 1266679807
0.029915133 -0.00030744076 0.070571542 1266679807
-0.032414533 0.0063615441 0.067178607 1266679807
0.029872602 0.0072590709 0.0690552 1266679807
0.032487962 0.0051070452 0.064556599 1266679807
-0.032434102 0.01281029 0.063314795 1266679807
-0.02985765 0.015430093 0.065956831 1266679807
0.029897233 0.0135777 0.064943075 1266679807
0.032498401 0.011726439 0.061013818 1266679807
-0.032503035 0.018447399 0.057677746 1266679807
-0.028350487 0.022163749 0.060508251 1266679807
0.027936727 0.021356702 0.059800506 1266679807
0.032521699 0.015868664 0.058067322 1266679807
-0.026760502 0.027768493 0.054879785 1266679807
-0.0209164 0.030602217 0.057846069 1266679807
0.020763651 0.030122697 0.057191491 1266679807
0.025985861 0.027410507 0.054437637 1266679807
-0.0249942 0.032215655 0.051724911 1266679807
-0.019620145 0.034345388 0.05210793 1266679807
-0.0128171 0.036664069 0.053800702 1266679807
-0.0054777041 0.037838995 0.054513693 1266679807
0.004565625 0.037896693 0.054235816 1266679807
0.012461773 0.035977781 0.054008961 1266679807
0.018298566 0.033849359 0.053327918 1266679807
-0.0112569 0.038588166 0.047600389 1266679807
-0.0049953735 0.03948921 0.049635053 1266679807
0.0037502451 0.039155185 0.048880696 1266679807
-0.02729325 -0.0032941103 0.078621268 1266679807
0.0254217 -0.0035891533 0.079426408 1266679807
-0.02826402 0.0032519698 0.076764941 1266679807
0.02664955 0.0022962093 0.077349663 1266679807
-0.028521968 0.0093470812 0.073421955 1266679807
0.02626178 0.010380208 0.074436307 1266679807
-0.026558785 0.016081333 0.07109046 1266679807
0.02225305 0.018838465 0.073211074 1266679807
0.026052386 0.01586026 0.069787264 1266679807
-0.025447976 0.021688163 0.066139221 1266679807
-0.020369057 0.025447249 0.067532778 1266679807
-0.0148419 0.028684139 0.067991138 1266679807
0.01360665 0.028650701 0.067918301 1266679807
0.020327378 0.024674594 0.066974282 1266679807
0.024834 0.020964861 0.066057086 1266679807
-0.0186255 0.029988945 0.06190455 1266679807
-0.012396071 0.032056749 0.063449144 1266679807
-0.0053058243 0.033285379 0.064444542 1266679807
0.0041275308 0.033335567 0.064270258 1266679807
0.012402933 0.031769395 0.062817097 1266679807
0.018216833 0.029455006 0.061732292 1266679807
-0.011185801 0.035122395 0.058186889 1266679807
-0.0043466301 0.036053002 0.058740377 1266679807
0.0028983017 0.036170304 0.058496118 1266679807
0.0099416701 0.035169601 0.058291674 1266679807
-0.024684699 -0.00040233135 0.084505439 1266679807
0.022170201 0.00075787306 0.08686626 1266679807
-0.024653466 0.0058938861 0.083344221 1266679807
-0.022114201 0.0099662542 0.086108804 1266679807
0.0221534 0.0067600608 0.085128665 1266679807
0.0247046 0.0058632493 0.0804528 1266679807
-0.024679 0.012029767 0.079030156 1266679807
-0.021528 0.014284372 0.082321644 1266679807
0.020925799 0.013411999 0.081920266 1266679807
0.0247123 0.0090484023 0.078526258 1266679807
-0.019711867 0.019681454 0.077898502 1266679807
-0.0135151 0.023317277 0.0798558 1266679807
0.013931167 0.022315323 0.079648137 1266679807
0.019014256 0.019153297 0.077605486 1266679807
-0.0181001 0.023911476 0.073368549 1266679807
-0.012100325 0.026963949 0.073899865 1266679807
-0.0049257227 0.028833985 0.074211717 1266679807
0.00397758 0.028586566 0.074577928 1266679807
0.012081754 0.026430249 0.073709249 1266679807
0.017287452 0.02395308 0.072481275 1266679807
-0.0037056948 0.031640828 0.068510294 1266679807
0.0024709234 0.031629741 0.068485975 1266679807
-0.0024427101 -0.02222836 0.10930789 1266679807
0 -0.02222836 0.10930789 1266679807
-0.01098206 -0.019479215 0.10930586 1266679807
-0.0048809065 -0.019479215 0.10930586 1266679807
0.00366068 -0.019479215 0.10930586 1266679807
0.0097618196 -0.019479215 0.10930586 1266679807
-0.021982901 0.011018932 0.093904257 1266679807
0.019586701 0.010827482 0.090699911 1266679807
-0.0183948 0.015437245 0.086158991 1266679807
-0.01345725 0.01897794 0.087892532 1266679807
0.012849871 0.018284798 0.087859988 1266679807
0.017167466 0.015449882 0.086181402 1266679807
-0.011905531 0.021835446 0.08411634 1266679807
-0.0048934878 0.023444235 0.085885406 1266679807
0.0036714158 0.023389518 0.085769176 1266679807
0.011442429 0.021533132 0.083749533 1266679807
-0.0049095033 0.026130974 0.080075622 1266679807
0.0024546601 0.026209831 0.08024478 1266679807
-0.017051701 -0.013993502 0.10930789 1266679807
-0.012185385 -0.015363932 0.10930693 1266679807
-0.0048741535 -0.015363812 0.10930705 1266679807
0.0036556148 -0.015363812 0.10930705 1266679807
0.011696622 -0.01508981 0.10930717 1266679807
-0.019145325 -0.0081892014 0.1093086 1266679807
-0.012157351 -0.0085315108 0.10930586 1266679807
-0.0048629399 -0.0085300803 0.10930908 1266679807
0.0036472033 -0.0085300803 0.10930896 1266679807
0.012157338 -0.0085304976 0.10930812 1266679807
0.017989282 -0.0079845786 0.1093086 1266679807
-0.02427 -0.0030845404 0.10930765 1266679807
-0.019415999 -0.0030845404 0.10930765 1266679807
-0.012135 -0.0030845404 0.10930765 1266679807
-0.0048539997 -0.0030845404 0.10930765 1266679807
0.0036405001 -0.0030845404 0.10930765 1266679807
0.012134999 -0.0030845404 0.10930765 1266679807
0.019415999 -0.0030845404 0.10930765 1266679807
-0.024343001 0.0040456057 0.10183418 1266679807
0.0219087 0.0040456057 0.10183418 1266679807
-0.020256599 0.013673484 0.099371433 1266679807
0.017825866 0.013673484 0.099371433 1266679807
-0.017038099 0.017347932 0.095796943 1266679807
-0.012160406 0.020736277 0.095360875 1266679807
-0.0048558367 0.023222148 0.096812963 1266679807
0.003646255 0.022899568 0.09613502 1266679807
0.012163229 0.019208312 0.095926166 1266679807
-0.024236601 0.00098514557 0.10930765 1266679807
-0.019389266 0.00098514557 0.10930765 1266679807
-0.012118295 0.00098514557 0.10930765 1266679807
-0.0048473165 0.00098448992 0.10930634 1266679807
0.0036354875 0.00098460913 0.10930657 1266679807
0.012118295 0.00098514557 0.10930777 1266679807
0.019389266 0.00098514557 0.10930765 1266679807
-0.024230899 0.00440979 0.1080308 1266679807
-0.019342108 0.0089350343 0.10899174 1266679807
-0.012085044 0.0090876818 0.10930324 1266679807
-0.0048340126 0.0090876222 0.10930312 1266679807
0.0036255103 0.0090876222 0.10930312 1266679807
0.012085044 0.0090876818 0.10930324 1266679807
0.018543644 0.0083643794 0.10874653 1266679807
-0.017515276 0.016450822 0.10647106 1266679807
-0.012399672 0.017492414 0.10881865 1266679807
-0.0048207766 0.017151356 0.10930026 1266679807
0.00361558 0.017151356 0.10930026 1266679807
0.01236925 0.017354131 0.10764301 1266679807
0.016902 0.015114605 0.10787201 1266679807
-0.011495874 0.021070004 0.10214353 1266679807
-0.0048359567 0.023229599 0.10245514 1266679807
0.0043529803 0.022723019 0.10251462 1266679807
0.010897475 0.020176589 0.10168302 1266679807
-0.010834985 0.021030962 0.10901904 1266679807
-0.0048141833 0.021165907 0.10929835 1266679807
0.0036106375 0.021165907 0.10929835 1266679807
0.0096332598 0.020896077 0.10874009 1266679807
-0.0048162299 0.023234725 0.10804677 1266679807
0.00240863 0.023234725 0.10804677 1266679807
