# .PCD v0.7 - Point Cloud Data file format
VERSION 0.7
FIELDS x y z rgb
SIZE 4 4 4 4
TYPE F F F U
COUNT 1 1 1 1
WIDTH 1065
HEIGHT 1
VIEWPOINT 0 0 0 1 0 0 0
POINTS 1065
DATA ascii
0.39272201 -0.401306 -1.1045201 1266614272
0.60689229 -0.40220863 -1.1050334 1266614272
0.61247706 -0.40407977 -1.1067773 1266614272
0.61987472 -0.40462273 -1.1098717 1266614272
-0.61875701 -0.39787418 -1.1109166 1266614272
-0.61179739 -0.39570907 -1.1087332 1266614272
-0.60449475 -0.39590627 -1.105623 1266614272
-0.598822 -0.39277604 -1.10467 1266614272
-0.40274701 -0.39416245 -1.1045483 1266614272
-0.39571348 -0.39571357 -1.1065556 1266614272
-0.38806877 -0.39633408 -1.1096306 1266614272
-0.38155833 -0.39883634 -1.1115934 1266614272
0.38146263 -0.39791968 -1.1107925 1266614272
0.38829809 -0.39578077 -1.1086664 1266614272
0.39548153 -0.39548141 -1.1058115 1266614272
0.40231299 -0.39265803 -1.1043401 1266614272
0.59733725 -0.39339405 -1.1049001 1266614272
0.60454839 -0.39564034 -1.1066885 1266614272
0.61193413 -0.39633393 -1.1096334 1266614272
0.61840397 -0.39883065 -1.1115732 1266614272
-0.61050439 -0.38901284 -1.111084 1266614272
-0.60442382 -0.38817009 -1.1090386 1266614272
-0.59602267 -0.38792485 -1.1059077 1266614272
-0.58970302 -0.38502464 -1.10501 1266614272
-0.41619501 -0.38401502 -1.1041601 1266614272
-0.41070902 -0.3857446 -1.1052824 1266614272
-0.40399578 -0.38818544 -1.1067066 1266614272
-0.39636165 -0.38809589 -1.1097089 1266614272
-0.39014068 -0.39014071 -1.11143 1266614272
0.38928652 -0.38928649 -1.1110469 1266614272
0.39590031 -0.3881433 -1.1089209 1266614272
0.40400466 -0.3876189 -1.1060375 1266614272
0.41106212 -0.38494664 -1.1047883 1266614272
0.58907568 -0.38579705 -1.105175 1266614272
0.59590125 -0.38833362 -1.1066023 1266614272
0.60360026 -0.38778168 -1.1098359 1266614272
0.60964 -0.39011168 -1.1113466 1266614272
-0.60227323 -0.38208652 -1.111035 1266614272
-0.59597224 -0.38042873 -1.1093525 1266614272
-0.58779156 -0.37998027 -1.1067035 1266614272
-0.58087254 -0.37847823 -1.1052288 1266614272
-0.42591602 -0.37763903 -1.1043401 1266614272
-0.41968027 -0.37870893 -1.1056778 1266614272
-0.4121204 -0.37983862 -1.1076324 1266614272
-0.40454271 -0.3808217 -1.1098688 1266614272
-0.39885601 -0.38157693 -1.1116433 1266614272
0.39794233 -0.38175118 -1.1111069 1266614272
0.40412638 -0.38041702 -1.1093181 1266614272
0.411879 -0.37961626 -1.1069844 1266614272
0.41897699 -0.3783673 -1.1053319 1266614272
0.57518798 -0.37773499 -1.1046201 1266614272
0.58057809 -0.3790431 -1.1055973 1266614272
0.58777529 -0.38003966 -1.107497 1266614272
0.5955646 -0.38090107 -1.1098711 1266614272
0.60143101 -0.38223746 -1.111475 1266614272
-0.59486198 -0.37570247 -1.111305 1266614272
-0.58783323 -0.37246951 -1.1104491 1266614272
-0.57999283 -0.37189361 -1.1082373 1266614272
-0.57252866 -0.37191036 -1.1059986 1266614272
-0.56425649 -0.36996847 -1.1049299 1266614272
-0.44104052 -0.36914405 -1.1046 1266614272
-0.43513367 -0.37070921 -1.1052727 1266614272
-0.4278971 -0.37176272 -1.1066933 1266614272
-0.41991526 -0.37175059 -1.1089953 1266614272
-0.41219744 -0.3735314 -1.1107402 1266614272
-0.40608799 -0.37584695 -1.1117301 1266614272
0.40592676 -0.37515825 -1.1112951 1266614272
0.41246936 -0.37271661 -1.1102265 1266614272
0.42014283 -0.37175676 -1.1082611 1266614272
0.42769578 -0.37145653 -1.1061722 1266614272
0.43613079 -0.36994219 -1.1048516 1266614272
0.44187701 -0.368945 -1.10401 1266614272
0.55790001 -0.36907199 -1.10439 1266614272
0.56447852 -0.37068141 -1.10519 1266614272
0.57237905 -0.37197822 -1.1066593 1266614272
0.57988173 -0.37189025 -1.1088609 1266614272
0.5874694 -0.37357348 -1.1105939 1266614272
0.59403098 -0.37586001 -1.11177 1266614272
-0.57942784 -0.36613581 -1.1111041 1266614272
-0.5715251 -0.36454457 -1.1096641 1266614272
-0.56431699 -0.36409712 -1.1080344 1266614272
-0.55602926 -0.36397988 -1.1061544 1266614272
-0.5483005 -0.36290812 -1.1052232 1266614272
-0.54060334 -0.36135602 -1.1048516 1266614272
-0.53316152 -0.36044705 -1.10426 1266614272
-0.46779266 -0.36050069 -1.1044233 1266614272
-0.46002743 -0.3615813 -1.1049187 1266614272
-0.45186472 -0.36330768 -1.1054355 1266614272
-0.4439238 -0.36438164 -1.1064405 1266614272
-0.43614882 -0.36399326 -1.108536 1266614272
-0.42877173 -0.3644101 -1.1103458 1266614272
-0.42155975 -0.36650345 -1.1112375 1266614272
0.42099515 -0.36578766 -1.1111728 1266614272
0.42849967 -0.36393324 -1.1099912 1266614272
0.43578053 -0.36405453 -1.1080315 1266614272
0.4437682 -0.36425394 -1.1060531 1266614272
0.45176598 -0.36273965 -1.1053028 1266614272
0.45972669 -0.36134127 -1.1048068 1266614272
0.466658 -0.36045304 -1.1042751 1266614272
0.532166 -0.36049932 -1.1044199 1266614272
0.54040879 -0.361601 -1.1049773 1266614272
0.54843688 -0.36354053 -1.1053673 1266614272
0.55596846 -0.36430439 -1.106457 1266614272
0.56389201 -0.36367419 -1.1087229 1266614272
0.57097459 -0.36515275 -1.1098722 1266614272
0.57804453 -0.3664723 -1.111145 1266614272
-0.56820798 -0.35864103 -1.1119602 1266614272
-0.5624212 -0.35825637 -1.1107719 1266614272
-0.55564785 -0.3568798 -1.1101115 1266614272
-0.54819083 -0.35627484 -1.1089315 1266614272
-0.54019296 -0.35618037 -1.1076785 1266614272
-0.53191173 -0.3560386 -1.1065687 1266614272
-0.5237968 -0.35538733 -1.1061659 1266614272
-0.51642823 -0.35509181 -1.10581 1266614272
-0.5081116 -0.35449487 -1.1057774 1266614272
-0.49982139 -0.35430759 -1.1057988 1266614272
-0.49199218 -0.35449126 -1.1057628 1266614272
-0.48396161 -0.35552707 -1.1056458 1266614272
-0.4760623 -0.35570121 -1.1061882 1266614272
-0.46780059 -0.35595661 -1.1069819 1266614272
-0.45984948 -0.3560802 -1.1080366 1266614272
-0.45203713 -0.35611916 -1.1093551 1266614272
-0.44421214 -0.35746402 -1.1102314 1266614272
-0.43724698 -0.3584345 -1.111325 1266614272
0.4364017 -0.35833213 -1.1110084 1266614272
0.44399706 -0.35715196 -1.1100287 1266614272
0.45169178 -0.35603592 -1.1090968 1266614272
0.4600119 -0.35617161 -1.1076512 1266614272
0.46793374 -0.35567948 -1.1067886 1266614272
0.47599545 -0.35565105 -1.1060338 1266614272
0.48385668 -0.35528907 -1.1056753 1266614272
0.49199572 -0.35449395 -1.1057701 1266614272
0.49982169 -0.35430795 -1.1058002 1266614272
0.50810945 -0.35449365 -1.1057693 1266614272
0.51638877 -0.35560405 -1.1056285 1266614272
0.52387381 -0.35543951 -1.1063306 1266614272
0.53177029 -0.35620058 -1.1067871 1266614272
0.53975022 -0.3559866 -1.1080321 1266614272
0.54792017 -0.35656136 -1.1090901 1266614272
0.55569875 -0.35722023 -1.1103516 1266614272
0.56245053 -0.35841349 -1.1112599 1266614272
-0.54635066 -0.35127702 -1.1114498 1266614272
-0.54016072 -0.35085705 -1.1107728 1266614272
-0.53185111 -0.34953201 -1.1104841 1266614272
-0.52359986 -0.34873325 -1.1100585 1266614272
-0.51590508 -0.34850293 -1.1096652 1266614272
-0.50792599 -0.34795696 -1.1095932 1266614272
-0.49983418 -0.34807116 -1.1095001 1266614272
-0.49181843 -0.34823757 -1.1095732 1266614272
-0.48387879 -0.34845984 -1.1098213 1266614272
-0.47627163 -0.34865552 -1.110337 1266614272
-0.46821049 -0.34973526 -1.1105063 1266614272
-0.46039113 -0.35092109 -1.1109756 1266614272
-0.45553899 -0.35191 -1.1111701 1266614272
0.45485434 -0.35121599 -1.1112567 1266614272
0.46028587 -0.35084116 -1.1107213 1266614272
0.46785405 -0.34954149 -1.1105133 1266614272
0.47613135 -0.34839052 -1.1102878 1266614272
0.48409557 -0.34824467 -1.1098231 1266614272
0.4920375 -0.34839597 -1.1093243 1266614272
0.49983141 -0.34806901 -1.1094933 1266614272
0.50798243 -0.34799564 -1.1097167 1266614272
0.51595074 -0.34853375 -1.1097621 1266614272
0.52376062 -0.34905261 -1.110105 1266614272
0.53191549 -0.34957409 -1.1106169 1266614272
0.53968602 -0.35079506 -1.1110649 1266614272
0.54519153 -0.35194504 -1.111285 1266614272
-0.6431275 -0.51364493 -1.1015151 1266614272
-0.63849401 -0.51250398 -1.09907 1266614272
-0.36311734 -0.51263762 -1.0993533 1266614272
-0.35720426 -0.5135833 -1.1025326 1266614272
0.35587597 -0.5134753 -1.1020701 1266614272
0.36189049 -0.51241195 -1.09887 1266614272
0.63790202 -0.51288545 -1.09989 1266614272
0.64258897 -0.51407099 -1.10243 1266614272
-0.64431912 -0.50766599 -1.1020545 1266614272
-0.63667697 -0.50836551 -1.0980371 1266614272
-0.36856148 -0.50810349 -1.0964851 1266614272
-0.363933 -0.50782931 -1.0988135 1266614272
-0.35778654 -0.50826073 -1.1020746 1266614272
0.35657185 -0.50810707 -1.1015754 1266614272
0.36374748 -0.50794059 -1.0978215 1266614272
0.63628507 -0.50817114 -1.0989363 1266614272
0.64380181 -0.50757015 -1.1029342 1266614272
-0.64433414 -0.49969745 -1.1020792 1266614272
-0.63639826 -0.49987444 -1.0979044 1266614272
-0.36856648 -0.49958825 -1.0964974 1266614272
-0.36425909 -0.50011563 -1.0986621 1266614272
-0.35764238 -0.50005865 -1.1022317 1266614272
0.35620973 -0.50006658 -1.1017779 1266614272
0.36387172 -0.49995306 -1.0977681 1266614272
0.63036001 -0.49619493 -1.09606 1266614272
0.63630664 -0.50000334 -1.0989758 1266614272
0.64314842 -0.5004642 -1.102652 1266614272
-0.643462 -0.49177012 -1.1018271 1266614272
-0.6358732 -0.4919802 -1.0978909 1266614272
-0.36867249 -0.49120751 -1.0968125 1266614272
-0.36408693 -0.49221402 -1.0990618 1266614272
-0.3577244 -0.4916046 -1.1024834 1266614272
0.35639238 -0.49212927 -1.1019006 1266614272
0.36376375 -0.49177736 -1.098087 1266614272
0.63054132 -0.49207771 -1.09638 1266614272
0.63628161 -0.49201414 -1.0992663 1266614272
0.642775 -0.49172252 -1.1027474 1266614272
-0.64365947 -0.48408124 -1.1024275 1266614272
-0.63597935 -0.48409542 -1.0984083 1266614272
-0.36983871 -0.48429111 -1.0966644 1266614272
-0.36421758 -0.48384577 -1.0994556 1266614272
-0.35784155 -0.48383725 -1.1028459 1266614272
0.35677031 -0.48426175 -1.1021867 1266614272
0.36371547 -0.48367554 -1.0985854 1266614272
0.36848101 -0.48349804 -1.0962434 1266614272
0.63088572 -0.48488647 -1.096975 1266614272
0.63662475 -0.48431543 -1.0998609 1266614272
0.64257503 -0.48310971 -1.1031381 1266614272
-0.64266598 -0.47664329 -1.10256 1266614272
-0.63658172 -0.47600892 -1.0994511 1266614272
-0.63058174 -0.47613105 -1.0964501 1266614272
-0.37045527 -0.47596586 -1.097048 1266614272
-0.36425769 -0.47584581 -1.1002209 1266614272
-0.35907769 -0.47632131 -1.1028814 1266614272
0.35786441 -0.47624496 -1.1023155 1266614272
0.36404127 -0.47594637 -1.099138 1266614272
0.36930335 -0.4754782 -1.0965799 1266614272
0.62994784 -0.47645676 -1.0971987 1266614272
0.63606322 -0.47570959 -1.1004025 1266614272
0.64057052 -0.47667804 -1.1026425 1266614272
-0.64136261 -0.46887967 -1.1027766 1266614272
-0.63584888 -0.468068 -1.1000299 1266614272
-0.63014132 -0.46750367 -1.0972713 1266614272
-0.37164292 -0.46775419 -1.0974993 1266614272
-0.36379084 -0.46800953 -1.1014014 1266614272
-0.35816899 -0.47183901 -1.1038501 1266614272
0.35831195 -0.46867859 -1.102973 1266614272
0.36437297 -0.46802324 -1.099925 1266614272
0.37044129 -0.46742189 -1.097008 1266614272
0.62827623 -0.46836337 -1.0973811 1266614272
0.63560873 -0.46775728 -1.1011282 1266614272
0.64111102 -0.47064847 -1.10357 1266614272
-0.64118749 -0.46212643 -1.1037049 1266614272
-0.63563031 -0.45964757 -1.1011941 1266614272
-0.62839466 -0.45992124 -1.0975901 1266614272
-0.37700951 -0.45901397 -1.0962701 1266614272
-0.37236702 -0.45985916 -1.0982894 1266614272
-0.36478099 -0.46000934 -1.1021093 1266614272
0.358172 -0.46326399 -1.1038601 1266614272
0.36380515 -0.4598954 -1.101446 1266614272
0.37168017 -0.45957467 -1.0976093 1266614272
0.62728971 -0.45979673 -1.0981435 1266614272
0.6350649 -0.46013066 -1.102007 1266614272
-0.63527435 -0.45269451 -1.1022787 1266614272
-0.62736857 -0.45184651 -1.0985669 1266614272
-0.62198699 -0.45051402 -1.0963202 1266614272
-0.37844023 -0.45161781 -1.09699 1266614272
-0.37188143 -0.45203105 -1.1000106 1266614272
-0.36561531 -0.45166045 -1.1032085 1266614272
0.36511454 -0.45230275 -1.1021636 1266614272
0.37239349 -0.45161781 -1.09872 1266614272
0.37758926 -0.45108351 -1.0964074 1266614272
0.62183088 -0.45160231 -1.0971158 1266614272
0.62843382 -0.45208514 -1.1001451 1266614272
0.63441533 -0.45223463 -1.1031133 1266614272
-0.63397574 -0.44480047 -1.1032826 1266614272
-0.62860906 -0.44408819 -1.1007929 1266614272
-0.62116611 -0.44332251 -1.097501 1266614272
-0.38549501 -0.44086996 -1.0961699 1266614272
-0.37978289 -0.44367433 -1.09814 1266614272
-0.37170455 -0.44436008 -1.101723 1266614272
-0.366698 -0.44604203 -1.1037 1266614272
0.36609998 -0.44497862 -1.103194 1266614272
0.37206659 -0.44370303 -1.1005611 1266614272
0.37958178 -0.44388247 -1.0970374 1266614272
0.615646 -0.44202897 -1.09641 1266614272
0.6204797 -0.44436106 -1.0981064 1266614272
0.62750202 -0.44365859 -1.1015122 1266614272
0.63236904 -0.44587299 -1.1032833 1266614272
-0.63265097 -0.43963897 -1.10378 1266614272
-0.62718844 -0.43603209 -1.1020528 1266614272
-0.61964226 -0.43566817 -1.0986826 1266614272
-0.61461973 -0.43566585 -1.096475 1266614272
-0.3864814 -0.43487194 -1.097162 1266614272
-0.37989539 -0.43628731 -1.0998385 1266614272
-0.37329492 -0.43651098 -1.102918 1266614272
0.37206921 -0.43617266 -1.1023742 1266614272
0.37998679 -0.43613279 -1.098729 1266614272
0.3861585 -0.43409526 -1.0965475 1266614272
0.61250937 -0.43472257 -1.0967842 1266614272
0.61964637 -0.43588495 -1.0997224 1266614272
0.62692535 -0.43713245 -1.1028643 1266614272
-0.626059 -0.42880702 -1.1034975 1266614272
-0.62015337 -0.42816791 -1.1009383 1266614272
-0.61235917 -0.42736974 -1.0978036 1266614272
-0.607279 -0.42402995 -1.0966802 1266614272
-0.39320984 -0.42624334 -1.0968999 1266614272
-0.38771829 -0.42814845 -1.0985743 1266614272
-0.38027304 -0.42817542 -1.1018758 1266614272
-0.37526399 -0.42994493 -1.1036649 1266614272
0.37426138 -0.42913598 -1.10324 1266614272
0.37965608 -0.42810446 -1.1010447 1266614272
0.38745093 -0.42760274 -1.0978153 1266614272
0.392138 -0.42410499 -1.09688 1266614272
0.60656178 -0.4258284 -1.0969299 1266614272
0.61241001 -0.42825824 -1.0985899 1266614272
0.62010831 -0.42791688 -1.1021268 1266614272
-0.61851364 -0.4206413 -1.1024662 1266614272
-0.61165696 -0.41987771 -1.0997667 1266614272
-0.60461646 -0.41915342 -1.09717 1266614272
-0.40114465 -0.41818431 -1.0962566 1266614272
-0.39556551 -0.41969699 -1.0978956 1266614272
-0.38816464 -0.42024505 -1.1007274 1266614272
-0.3825826 -0.4206261 -1.1031275 1266614272
0.3813144 -0.4205884 -1.1025624 1266614272
0.38788497 -0.41994199 -1.0999343 1266614272
0.3946037 -0.41953245 -1.097357 1266614272
0.59859002 -0.41752201 -1.09638 1266614272
0.60390174 -0.41888949 -1.0979391 1266614272
0.61190915 -0.41989189 -1.100884 1266614272
0.61760229 -0.42208955 -1.1027499 1266614272
-0.61751902 -0.41596797 -1.1035601 1266614272
-0.61174738 -0.41237292 -1.1022936 1266614272
-0.60410869 -0.41221005 -1.0992655 1266614272
-0.59723365 -0.4115738 -1.0969344 1266614272
-0.59199703 -0.40886202 -1.09601 1266614272
-0.40901199 -0.40901202 -1.09641 1266614272
-0.40336114 -0.41173914 -1.0975991 1266614272
-0.39643061 -0.41163236 -1.1002579 1266614272
-0.38917145 -0.41327208 -1.1025691 1266614272
0.38374451 -0.41482955 -1.10339 1266614272
0.38884136 -0.41239485 -1.102038 1266614272
0.39623907 -0.41194263 -1.0992217 1266614272
0.4028303 -0.41135576 -1.096982 1266614272
0.58991402 -0.40889299 -1.0960901 1266614272
0.59639573 -0.41186523 -1.0974677 1266614272
0.60401273 -0.41158235 -1.1004384 1266614272
0.61055076 -0.41284782 -1.1025958 1266614272
-0.60960335 -0.40664035 -1.1034633 1266614272
-0.603365 -0.40426195 -1.1018566 1266614272
-0.59603387 -0.4039624 -1.0992429 1266614272
-0.58879733 -0.40310919 -1.0970988 1266614272
-0.58371401 -0.40050396 -1.09645 1266614272
-0.41824499 -0.40120202 -1.0964133 1266614272
-0.41197172 -0.40344238 -1.0974915 1266614272
-0.40398598 -0.40398604 -1.1001363 1266614272
-0.39654973 -0.40462607 -1.1027732 1266614272
0.39026099 -0.40634254 -1.1036301 1266614272
0.39611927 -0.40432784 -1.1020368 1266614272
0.40398961 -0.40398976 -1.0992274 1266614272
0.41140717 -0.40288025 -1.0971191 1266614272
0.417436 -0.400397 -1.0961601 1266614272
0.582699 -0.40160394 -1.09654 1266614272
0.58839017 -0.40357223 -1.0975517 1266614272
0.59632629 -0.40375674 -1.1003444 1266614272
0.60379368 -0.40474975 -1.10286 1266614272
0.60917902 -0.40754896 -1.1039901 1266614272
-0.60150951 -0.39779007 -1.103695 1266614272
-0.59550273 -0.39601064 -1.1021917 1266614272
-0.58772218 -0.39646742 -1.0993469 1266614272
-0.58024144 -0.395291 -1.0975717 1266614272
-0.57430053 -0.39316645 -1.0967774 1266614272
-0.42678562 -0.39348471 -1.0969237 1266614272
-0.41957229 -0.39585131 -1.0981454 1266614272
-0.4114309 -0.39633662 -1.1005393 1266614272
-0.40510127 -0.39672613 -1.1026365 1266614272
-0.39895099 -0.39895096 -1.10394 1266614272
0.39814401 -0.39814407 -1.1036867 1266614272
0.40421656 -0.39618507 -1.1022155 1266614272
0.41157058 -0.39649004 -1.0995694 1266614272
0.41943452 -0.39526355 -1.0976733 1266614272
0.4257918 -0.39297321 -1.0968339 1266614272
0.57373637 -0.39385703 -1.0969241 1266614272
0.58002192 -0.39554146 -1.0981423 1266614272
0.58815163 -0.39620891 -1.1004561 1266614272
0.59506834 -0.39702746 -1.1025722 1266614272
0.60047197 -0.39888501 -1.10376 1266614272
-0.58764982 -0.38914689 -1.1025 1266614272
-0.57970333 -0.3882753 -1.1003431 1266614272
-0.57194871 -0.38775289 -1.0984 1266614272
-0.564906 -0.38647911 -1.0971559 1266614272
-0.55798 -0.38547504 -1.09612 1266614272
-0.44204649 -0.38559252 -1.0964501 1266614272
-0.43527225 -0.38714415 -1.0974022 1266614272
-0.42817301 -0.38759708 -1.0991193 1266614272
-0.42036331 -0.38827381 -1.1010375 1266614272
-0.4133518 -0.38924661 -1.1027817 1266614272
0.407428 -0.39027297 -1.10366 1266614272
0.41261587 -0.38920799 -1.1023835 1266614272
0.42014667 -0.38807362 -1.1004699 1266614272
0.42809314 -0.38766801 -1.0984312 1266614272
0.43488288 -0.38649103 -1.0971911 1266614272
0.44092599 -0.385544 -1.0963101 1266614272
0.55699652 -0.38553098 -1.0962751 1266614272
0.56430537 -0.38698077 -1.09737 1266614272
0.57183635 -0.38772839 -1.0990622 1266614272
0.5800783 -0.38852632 -1.1010554 1266614272
0.58680397 -0.38941613 -1.1027548 1266614272
-0.57922041 -0.38206443 -1.1029586 1266614272
-0.57192951 -0.38024086 -1.101843 1266614272
-0.56377256 -0.37983376 -1.0999374 1266614272
-0.55625206 -0.37994477 -1.0982213 1266614272
-0.54861164 -0.37915152 -1.0970775 1266614272
-0.54075938 -0.37755123 -1.096606 1266614272
-0.53453702 -0.37694499 -1.0960799 1266614272
-0.4654105 -0.37701446 -1.0962851 1266614272
-0.45922518 -0.377893 -1.0967751 1266614272
-0.45177174 -0.37964386 -1.0972192 1266614272
-0.44399524 -0.37995604 -1.0986403 1266614272
-0.43593463 -0.37983835 -1.1004825 1266614272
-0.42789805 -0.38078168 -1.1022626 1266614272
-0.42062002 -0.38288859 -1.1033921 1266614272
0.41599 -0.38382602 -1.1036201 1266614272
0.42079601 -0.38222516 -1.10287 1266614272
0.42795014 -0.38009188 -1.1019453 1266614272
0.43630582 -0.37991136 -1.0998851 1266614272
0.44391131 -0.3800126 -1.0981545 1266614272
0.45168465 -0.37899724 -1.0970949 1266614272
0.45895562 -0.37756258 -1.096638 1266614272
0.464311 -0.37698695 -1.0962 1266614272
0.5335055 -0.376968 -1.0961499 1266614272
0.54092383 -0.3779003 -1.096795 1266614272
0.54861271 -0.37971643 -1.0972555 1266614272
0.55583435 -0.3800537 -1.0985584 1266614272
0.56378806 -0.37960926 -1.1005207 1266614272
0.57163703 -0.38044018 -1.1022891 1266614272
0.5782578 -0.38278958 -1.103104 1266614272
-0.56924701 -0.37521002 -1.10351 1266614272
-0.56325024 -0.37345836 -1.10286 1266614272
-0.55580389 -0.37180778 -1.1020564 1266614272
-0.54801083 -0.3723444 -1.1003283 1266614272
-0.54023319 -0.37178046 -1.0992941 1266614272
-0.53201884 -0.37245342 -1.0979174 1266614272
-0.52410406 -0.3712613 -1.0976484 1266614272
-0.51594406 -0.37096691 -1.0973018 1266614272
-0.50801933 -0.37103531 -1.0969318 1266614272
-0.49977764 -0.37083605 -1.0969133 1266614272
-0.49164101 -0.3707163 -1.0971328 1266614272
-0.48397636 -0.37097698 -1.0973318 1266614272
-0.47611666 -0.37208846 -1.0974671 1266614272
-0.46834725 -0.37232894 -1.0981755 1266614272
-0.45988113 -0.37195054 -1.0995528 1266614272
-0.45191589 -0.37213856 -1.1007745 1266614272
-0.4444125 -0.37205088 -1.1023194 1266614272
-0.43699923 -0.37376666 -1.1032013 1266614272
-0.43111899 -0.37535197 -1.10392 1266614272
0.4299525 -0.37527052 -1.1036799 1266614272
0.43653908 -0.373319 -1.102989 1266614272
0.44463578 -0.37197766 -1.1018782 1266614272
0.45221001 -0.37202817 -1.1004471 1266614272
0.45997149 -0.37229621 -1.099009 1266614272
0.46826246 -0.37226149 -1.0979786 1266614272
0.47604832 -0.37156156 -1.097484 1266614272
0.48396483 -0.37096804 -1.0973046 1266614272
0.49162915 -0.37070754 -1.0971081 1266614272
0.49977553 -0.37083417 -1.0969101 1266614272
0.50803351 -0.37104556 -1.0969619 1266614272
0.51595777 -0.37097672 -1.0973319 1266614272
0.52418983 -0.3716068 -1.0977416 1266614272
0.5318473 -0.3725957 -1.098065 1266614272
0.54006869 -0.37164718 -1.0996919 1266614272
0.54793251 -0.37245458 -1.100593 1266614272
0.55576682 -0.3718825 -1.102447 1266614272
0.56321603 -0.37419075 -1.1030319 1266614272
0.56832403 -0.37530798 -1.1038001 1266614272
-0.54705143 -0.3661294 -1.1032801 1266614272
-0.53893191 -0.3652122 -1.1024572 1266614272
-0.53180051 -0.36466509 -1.1018846 1266614272
-0.52414989 -0.36373827 -1.1016049 1266614272
-0.51629829 -0.36419824 -1.1007299 1266614272
-0.50797313 -0.36430207 -1.100356 1266614272
-0.4999108 -0.36438575 -1.1001785 1266614272
-0.49199003 -0.36457258 -1.1003133 1266614272
-0.48395151 -0.36380541 -1.1011053 1266614272
-0.47603601 -0.36406451 -1.1015484 1266614272
-0.4680512 -0.36476496 -1.10206 1266614272
-0.46025819 -0.36533466 -1.102825 1266614272
-0.45240566 -0.36664194 -1.1035334 1266614272
0.45193639 -0.36618 -1.103434 1266614272
0.46022019 -0.36524701 -1.1025633 1266614272
0.46807638 -0.36446607 -1.1020033 1266614272
0.47598845 -0.3640278 -1.1014371 1266614272
0.48371366 -0.36419836 -1.1007299 1266614272
0.49195343 -0.36454532 -1.1002313 1266614272
0.49991089 -0.36438569 -1.10018 1266614272
0.50801307 -0.36433044 -1.1004422 1266614272
0.51604271 -0.36380506 -1.1011047 1266614272
0.52420741 -0.36377838 -1.1017268 1266614272
0.53203458 -0.36503586 -1.1019251 1266614272
0.53912175 -0.36530489 -1.1027362 1266614272
0.54667634 -0.36659434 -1.10339 1266614272
-0.5141204 -0.35889742 -1.103452 1266614272
-0.50801343 -0.3590385 -1.10323 1266614272
-0.50047821 -0.35901514 -1.1031575 1266614272
-0.49194735 -0.35904643 -1.1032525 1266614272
-0.48689201 -0.35819802 -1.10394 1266614272
0.48555776 -0.35907671 -1.1033474 1266614272
0.49193749 -0.3590388 -1.10323 1266614272
0.50047678 -0.35901392 -1.1031539 1266614272
0.50802082 -0.35904369 -1.1032466 1266614272
0.51262099 -0.35819101 -1.10392 1266614272
-0.63239229 -0.5078305 -1.0958951 1266614272
-0.62802011 -0.50794154 -1.0938383 1266614272
-0.62119627 -0.50675696 -1.0907214 1266614272
-0.615264 -0.50637698 -1.0881951 1266614272
-0.38598752 -0.50654352 -1.0885525 1266614272
-0.38021755 -0.50683069 -1.0910347 1266614272
-0.37287238 -0.50759488 -1.0944049 1266614272
0.37160286 -0.5075196 -1.0940118 1266614272
0.37982073 -0.50671208 -1.0902829 1266614272
0.38479549 -0.50636554 -1.0881701 1266614272
0.61453497 -0.50664699 -1.0887775 1266614272
0.62013185 -0.50670552 -1.09118 1266614272
0.62763715 -0.50789297 -1.0946541 1266614272
-0.63241833 -0.5003984 -1.09594 1266614272
-0.6279946 -0.50048244 -1.0937963 1266614272
-0.6208716 -0.50008535 -1.0906146 1266614272
-0.615273 -0.50004125 -1.0882125 1266614272
-0.38599825 -0.50021172 -1.0885825 1266614272
-0.38041475 -0.49996728 -1.0909733 1266614272
-0.37319544 -0.49991104 -1.0942534 1266614272
0.37202349 -0.49987513 -1.0938158 1266614272
0.38025841 -0.5001415 -1.090122 1266614272
0.38479975 -0.50002825 -1.0881851 1266614272
0.61455214 -0.50031477 -1.0888076 1266614272
0.62036163 -0.49980217 -1.0913186 1266614272
0.62706774 -0.50045407 -1.0943691 1266614272
-0.62772721 -0.49169523 -1.0939478 1266614272
-0.62076908 -0.49245191 -1.0907744 1266614272
-0.61546999 -0.49174133 -1.0885625 1266614272
-0.38606614 -0.49183813 -1.0887737 1266614272
-0.38031951 -0.49189964 -1.0912606 1266614272
-0.37321576 -0.4923062 -1.0945187 1266614272
0.37219167 -0.49189609 -1.0939815 1266614272
0.38044512 -0.49229249 -1.09025 1266614272
0.38488251 -0.49167681 -1.088415 1266614272
0.61386794 -0.49244824 -1.088722 1266614272
0.61919093 -0.4918049 -1.0910484 1266614272
0.62609476 -0.49215856 -1.0941913 1266614272
-0.62714785 -0.48364604 -1.0941708 1266614272
-0.61997211 -0.48431918 -1.0908988 1266614272
-0.61494833 -0.48272014 -1.0888849 1266614272
-0.38699892 -0.48317271 -1.0889664 1266614272
-0.37988964 -0.48418933 -1.0919921 1266614272
-0.37336972 -0.48399821 -1.0949675 1266614272
0.37259451 -0.48408332 -1.0942581 1266614272
0.38040438 -0.48424953 -1.0907413 1266614272
0.38583559 -0.48282364 -1.08855 1266614272
0.6128673 -0.48274738 -1.0889467 1266614272
0.61935502 -0.48395684 -1.0916777 1266614272
0.62650675 -0.48397294 -1.0949112 1266614272
-0.62627912 -0.47529012 -1.0945125 1266614272
-0.61911482 -0.47599566 -1.0912533 1266614272
-0.61311281 -0.47474939 -1.088882 1266614272
-0.38781926 -0.47541383 -1.0893592 1266614272
-0.38000062 -0.47617137 -1.0926316 1266614272
-0.37385049 -0.47635838 -1.0953367 1266614272
0.37325001 -0.47640002 -1.0946201 1266614272
0.38011327 -0.4759101 -1.0915999 1266614272
0.38641536 -0.47528335 -1.0890138 1266614272
0.6124801 -0.47511786 -1.0895112 1266614272
0.61988419 -0.47587872 -1.0926117 1266614272
0.62558252 -0.47556952 -1.0951575 1266614272
-0.62612224 -0.46778244 -1.095356 1266614272
-0.61981446 -0.46804291 -1.0924867 1266614272
-0.61208993 -0.46753141 -1.0893171 1266614272
-0.39328 -0.46622705 -1.088245 1266614272
-0.38807523 -0.46773925 -1.0901345 1266614272
-0.37987021 -0.46828818 -1.0936129 1266614272
-0.37472153 -0.469466 -1.0958099 1266614272
0.37385666 -0.46785283 -1.095355 1266614272
0.37998208 -0.46808159 -1.0925776 1266614272
0.38790521 -0.4678759 -1.0892736 1266614272
0.60686648 -0.46625105 -1.088305 1266614272
0.61217546 -0.46777835 -1.0902241 1266614272
0.62060493 -0.46792999 -1.0938792 1266614272
-0.6206845 -0.46019724 -1.0940208 1266614272
-0.61233193 -0.46012887 -1.0905007 1266614272
-0.60642177 -0.45838425 -1.0884526 1266614272
-0.39478675 -0.45930687 -1.0887587 1266614272
-0.38803756 -0.45992181 -1.0913515 1266614272
-0.38034022 -0.46049914 -1.094543 1266614272
0.374708 -0.461997 -1.09577 1266614272
0.37967414 -0.46031129 -1.0938464 1266614272
0.38793638 -0.45986077 -1.0904405 1266614272
0.39384675 -0.45834228 -1.0883524 1266614272
0.60594952 -0.45942044 -1.0890288 1266614272
0.61276746 -0.46024802 -1.0916209 1266614272
0.61958021 -0.46007615 -1.0945745 1266614272
-0.61862278 -0.45203349 -1.0945523 1266614272
-0.61209172 -0.45222086 -1.0917919 1266614272
-0.60479814 -0.45148173 -1.0890774 1266614272
-0.40170899 -0.44822302 -1.0881701 1266614272
-0.39593223 -0.45168912 -1.0897326 1266614272
-0.38782406 -0.45202515 -1.0928565 1266614272
-0.38169 -0.45297456 -1.0951875 1266614272
0.38057938 -0.45254865 -1.0947992 1266614272
0.3879672 -0.45216483 -1.0917832 1266614272
0.39552021 -0.45102426 -1.0890462 1266614272
0.59834498 -0.44822997 -1.08819 1266614272
0.60350341 -0.45166397 -1.0895172 1266614272
0.61133391 -0.45212913 -1.0925062 1266614272
0.61765635 -0.45278168 -1.0949334 1266614272
-0.61793268 -0.44624501 -1.0954268 1266614272
-0.61180902 -0.44398266 -1.0933539 1266614272
-0.60371834 -0.44378382 -1.0902524 1266614272
-0.59866405 -0.44212234 -1.08877 1266614272
-0.40242192 -0.44262615 -1.0890619 1266614272
-0.39573967 -0.44438201 -1.0912637 1266614272
-0.38843462 -0.4438501 -1.0943339 1266614272
-0.38322699 -0.44709802 -1.0957801 1266614272
0.382568 -0.44535381 -1.095415 1266614272
0.38774592 -0.44404942 -1.0935174 1266614272
0.39593047 -0.44398788 -1.0903425 1266614272
0.401898 -0.44166479 -1.088684 1266614272
0.59746802 -0.44274399 -1.0889962 1266614272
0.60430688 -0.44421634 -1.0913175 1266614272
0.6117844 -0.44419387 -1.0943483 1266614272
-0.61075789 -0.43606418 -1.094805 1266614272
-0.60429919 -0.43611258 -1.0922607 1266614272
-0.59649986 -0.43560749 -1.0895693 1266614272
-0.59190702 -0.43547401 -1.08801 1266614272
-0.409605 -0.4349854 -1.0885534 1266614272
-0.40375698 -0.4356589 -1.0903465 1266614272
-0.39606562 -0.43641591 -1.0930206 1266614272
-0.39026386 -0.43602067 -1.0953587 1266614272
0.38908446 -0.43653378 -1.0947499 1266614272
0.39577809 -0.43609932 -1.0922276 1266614272
0.40318999 -0.43560922 -1.0896757 1266614272
0.40808201 -0.43451193 -1.0882499 1266614272
0.58928967 -0.43421295 -1.0883834 1266614272
0.59542006 -0.43582207 -1.0900192 1266614272
0.60359496 -0.43637034 -1.0929067 1266614272
0.60935521 -0.43659058 -1.0950539 1266614272
-0.60861647 -0.43092597 -1.09526 1266614272
-0.60371608 -0.42833835 -1.0940884 1266614272
-0.59569037 -0.42768052 -1.0913687 1266614272
-0.58872294 -0.42766955 -1.0890744 1266614272
-0.58356899 -0.42499098 -1.0882301 1266614272
-0.41735134 -0.42581132 -1.0885301 1266614272
-0.41140166 -0.42820698 -1.0896957 1266614272
-0.40426636 -0.4276104 -1.092227 1266614272
-0.3971023 -0.42885283 -1.0946243 1266614272
0.39162099 -0.42993131 -1.0954367 1266614272
0.39643431 -0.42831948 -1.0940375 1266614272
0.40416071 -0.42761216 -1.0914364 1266614272
0.41100135 -0.42793015 -1.0890931 1266614272
0.41652399 -0.42498097 -1.08821 1266614272
0.58261645 -0.42612404 -1.0884299 1266614272
0.58864409 -0.42788035 -1.0897977 1266614272
0.59645438 -0.42770419 -1.0924666 1266614272
0.60360175 -0.42942104 -1.0947378 1266614272
-0.60232747 -0.42194852 -1.0954301 1266614272
-0.59585011 -0.41979066 -1.0937569 1266614272
-0.58805758 -0.42044979 -1.0909556 1266614272
-0.5805766 -0.419563 -1.088964 1266614272
-0.57519698 -0.41659501 -1.08839 1266614272
-0.42579031 -0.41733104 -1.0884767 1266614272
-0.41996336 -0.41996348 -1.0894561 1266614272
-0.41233912 -0.41981941 -1.0918659 1266614272
-0.40465361 -0.42038712 -1.0942312 1266614272
-0.399048 -0.42352349 -1.0953751 1266614272
0.39826798 -0.42202953 -1.0951817 1266614272
0.40426046 -0.41949162 -1.0938078 1266614272
0.41207263 -0.42042604 -1.090917 1266614272
0.41943166 -0.4194316 -1.0890046 1266614272
0.425033 -0.41657397 -1.08834 1266614272
0.57458836 -0.41736937 -1.0885767 1266614272
0.5802229 -0.41991431 -1.0895274 1266614272
0.58759809 -0.42001259 -1.0917879 1266614272
0.59549075 -0.42043838 -1.0942742 1266614272
0.60149151 -0.42264104 -1.0958451 1266614272
-0.59430331 -0.41416803 -1.0950233 1266614272
-0.58774972 -0.41180465 -1.09365 1266614272
-0.58007884 -0.41226679 -1.0911509 1266614272
-0.57232839 -0.41147554 -1.0893067 1266614272
-0.56520325 -0.40870127 -1.0884925 1266614272
-0.43569639 -0.40940961 -1.0885687 1266614272
-0.42841834 -0.41160521 -1.0896792 1266614272
-0.41977453 -0.41213676 -1.091998 1266614272
-0.4120096 -0.41200957 -1.0944757 1266614272
-0.40592265 -0.41443872 -1.0957401 1266614272
0.40509596 -0.41360939 -1.0954233 1266614272
0.4119111 -0.4121232 -1.0936501 1266614272
0.42022836 -0.41210198 -1.0911217 1266614272
0.4282594 -0.41117722 -1.0892506 1266614272
0.43511176 -0.40867704 -1.08843 1266614272
0.56476957 -0.40944961 -1.0886729 1266614272
0.57194203 -0.4120177 -1.0896285 1266614272
0.58007705 -0.41232517 -1.0918928 1266614272
0.58759397 -0.41181052 -1.0944158 1266614272
0.593822 -0.41503701 -1.09544 1266614272
-0.5858677 -0.40570936 -1.0951636 1266614272
-0.58014762 -0.40417224 -1.0940257 1266614272
-0.57223159 -0.40386367 -1.0919588 1266614272
-0.56395382 -0.40375134 -1.0900185 1266614272
-0.55684501 -0.40182683 -1.0892075 1266614272
-0.551902 -0.40176699 -1.08833 1266614272
-0.44937152 -0.40179157 -1.08839 1266614272
-0.4433516 -0.40248418 -1.08939 1266614272
-0.43575135 -0.4038423 -1.0905776 1266614272
-0.42770886 -0.40435955 -1.0924795 1266614272
-0.4207902 -0.40420169 -1.0945427 1266614272
-0.41404551 -0.40659499 -1.0956399 1266614272
0.41365001 -0.40513554 -1.0955317 1266614272
0.41979674 -0.4043262 -1.0939854 1266614272
0.4277553 -0.40429589 -1.0918013 1266614272
0.43580547 -0.40350369 -1.0901663 1266614272
0.44271961 -0.40208748 -1.0891961 1266614272
0.44827601 -0.401757 -1.0883 1266614272
0.54973602 -0.40173003 -1.08823 1266614272
0.55612087 -0.40231758 -1.0893441 1266614272
0.56391639 -0.40386626 -1.0904855 1266614272
0.57201618 -0.40433612 -1.092415 1266614272
0.57949084 -0.40410358 -1.0946616 1266614272
0.585325 -0.40653503 -1.09548 1266614272
-0.57657599 -0.39892152 -1.0950301 1266614272
-0.57144701 -0.39687952 -1.0944684 1266614272
-0.56381804 -0.39605117 -1.0929822 1266614272
-0.55561924 -0.39600256 -1.0911787 1266614272
-0.54814976 -0.3953906 -1.0900657 1266614272
-0.54064965 -0.39537892 -1.0888534 1266614272
-0.53253496 -0.39379635 -1.088506 1266614272
-0.52642202 -0.39323103 -1.08811 1266614272
-0.47463548 -0.3932395 -1.088135 1266614272
-0.46774817 -0.39407864 -1.0885082 1266614272
-0.45976338 -0.39521605 -1.0892159 1266614272
-0.45220193 -0.39607176 -1.0901196 1266614272
-0.4444097 -0.39561918 -1.0917895 1266614272
-0.43626705 -0.39602634 -1.0934311 1266614272
-0.42891374 -0.39754263 -1.09465 1266614272
-0.42373699 -0.39818498 -1.09593 1266614272
0.42278934 -0.39867035 -1.0953133 1266614272
0.42869851 -0.3968004 -1.0944633 1266614272
0.43638381 -0.39603603 -1.0929401 1266614272
0.44438657 -0.39574376 -1.0912743 1266614272
0.4520739 -0.39595947 -1.0898099 1266614272
0.45972571 -0.39519882 -1.088876 1266614272
0.467805 -0.393785 -1.0884759 1266614272
0.47356901 -0.39323103 -1.08811 1266614272
0.5253765 -0.3932395 -1.088135 1266614272
0.53262633 -0.39409384 -1.0885516 1266614272
0.54050076 -0.39532158 -1.0892171 1266614272
0.54794002 -0.39577061 -1.0902628 1266614272
0.55611098 -0.39586806 -1.0918031 1266614272
0.56404686 -0.39621198 -1.0934249 1266614272
0.57139784 -0.3971692 -1.094891 1266614272
-0.56842899 -0.39172706 -1.0957299 1266614272
-0.56337619 -0.39061821 -1.09501 1266614272
-0.55598396 -0.38832042 -1.0944438 1266614272
-0.54801559 -0.38764465 -1.0932328 1266614272
-0.53984165 -0.38817415 -1.0917345 1266614272
-0.5319767 -0.38785249 -1.0908325 1266614272
-0.52418256 -0.38827592 -1.0899172 1266614272
-0.51585162 -0.38809648 -1.0893879 1266614272
-0.50802284 -0.38736677 -1.0894608 1266614272
-0.50024635 -0.38749751 -1.0892863 1266614272
-0.49174616 -0.3878929 -1.08924 1266614272
-0.48365453 -0.38840368 -1.0894001 1266614272
-0.47550741 -0.38790566 -1.0902781 1266614272
-0.46787691 -0.38795209 -1.0911105 1266614272
-0.45989123 -0.38808039 -1.0921005 1266614272
-0.45152882 -0.38778251 -1.0936195 1266614272
-0.44378504 -0.38863385 -1.0947343 1266614272
-0.4367516 -0.39077741 -1.095458 1266614272
0.43600246 -0.39024761 -1.0953162 1266614272
0.44388056 -0.38846081 -1.094408 1266614272
0.45190543 -0.38765016 -1.0932467 1266614272
0.46008793 -0.38817757 -1.0917455 1266614272
0.46796602 -0.38775715 -1.0908767 1266614272
0.47572696 -0.38827839 -1.0899247 1266614272
0.48385075 -0.38817981 -1.0893674 1266614272
0.49214625 -0.38736585 -1.0894567 1266614272
0.50024456 -0.38749626 -1.0892828 1266614272
0.50831568 -0.3876738 -1.0893308 1266614272
0.51590085 -0.38813353 -1.0894921 1266614272
0.52401978 -0.38847864 -1.0899875 1266614272
0.53188664 -0.38784087 -1.0911311 1266614272
0.53982258 -0.38804543 -1.0920748 1266614272
0.54788363 -0.38753742 -1.0936192 1266614272
0.555538 -0.38896361 -1.0944508 1266614272
0.56346077 -0.39106998 -1.0953825 1266614272
-0.54730916 -0.38237119 -1.0953599 1266614272
-0.53964794 -0.38080207 -1.094929 1266614272
-0.53202695 -0.38008744 -1.0942885 1266614272
-0.52398735 -0.37973788 -1.0936711 1266614272
-0.51601678 -0.38010824 -1.0929416 1266614272
-0.50801659 -0.3803021 -1.0924799 1266614272
-0.50013685 -0.37979275 -1.0926764 1266614272
-0.49211642 -0.3799237 -1.0927317 1266614272
-0.4840022 -0.38014868 -1.093058 1266614272
-0.47614086 -0.37988591 -1.0937371 1266614272
-0.46829087 -0.38003913 -1.0944856 1266614272
-0.46066067 -0.38148081 -1.0948423 1266614272
-0.45388252 -0.38258103 -1.0954525 1266614272
0.45294014 -0.3823567 -1.0953183 1266614272
0.46081492 -0.38094994 -1.094799 1266614272
0.4683874 -0.37984189 -1.0943551 1266614272
0.47603804 -0.38007295 -1.093519 1266614272
0.48395166 -0.38010904 -1.0929425 1266614272
0.49186781 -0.37969092 -1.0927577 1266614272
0.49993128 -0.37998703 -1.0925925 1266614272
0.50804937 -0.38032651 -1.0925511 1266614272
0.51585281 -0.38004318 -1.0930933 1266614272
0.52382666 -0.37990993 -1.0937278 1266614272
0.53210026 -0.38042465 -1.0943551 1266614272
0.53962123 -0.38111186 -1.095055 1266614272
0.54650152 -0.38260379 -1.0955175 1266614272
-0.52269298 -0.37472102 -1.0958049 1266614272
-0.51615822 -0.37461346 -1.0954925 1266614272
-0.50750047 -0.37450749 -1.0951824 1266614272
-0.50004435 -0.37450129 -1.0951633 1266614272
-0.49264324 -0.37453675 -1.0952675 1266614272
-0.48424751 -0.37462696 -1.0955327 1266614272
-0.479067 -0.37473702 -1.09585 1266614272
0.47692868 -0.37472963 -1.0958333 1266614272
0.48422325 -0.37460801 -1.095475 1266614272
0.49260402 -0.37450647 -1.09518 1266614272
0.50004464 -0.37450171 -1.0951667 1266614272
0.50754124 -0.37453753 -1.0952702 1266614272
0.51618803 -0.37463498 -1.0955575 1266614272
0.52168 -0.37475801 -1.09591 1266614272
-0.61116827 -0.50561196 -1.0865525 1266614272
-0.60445398 -0.50546563 -1.0839733 1266614272
-0.59792697 -0.50440156 -1.0816901 1266614272
-0.40359631 -0.50449598 -1.0818933 1266614272
-0.39553598 -0.50548834 -1.0847766 1266614272
-0.389667 -0.50582826 -1.0870174 1266614272
0.3884913 -0.50567347 -1.0866833 1266614272
0.39590061 -0.50540841 -1.0838521 1266614272
0.402426 -0.50434649 -1.0815749 1266614272
0.5971213 -0.50460833 -1.0821366 1266614272
0.60568351 -0.50552523 -1.085235 1266614272
0.61038101 -0.50583446 -1.0870302 1266614272
-0.61138576 -0.49978524 -1.0866716 1266614272
-0.6044848 -0.50022578 -1.0840292 1266614272
-0.59664208 -0.50000101 -1.0812682 1266614272
-0.40920469 -0.500139 -1.08005 1266614272
-0.40446934 -0.49987897 -1.0816085 1266614272
-0.39636007 -0.50027704 -1.0845016 1266614272
-0.38969189 -0.49952385 -1.087085 1266614272
0.38833463 -0.4996722 -1.086782 1266614272
0.39591491 -0.50016171 -1.0838913 1266614272
0.40416211 -0.49987823 -1.0810015 1266614272
0.59196371 -0.50169969 -1.0804 1266614272
0.59692198 -0.49950692 -1.0820934 1266614272
0.60479504 -0.50035363 -1.0849291 1266614272
0.61044252 -0.49954876 -1.08714 1266614272
-0.61134613 -0.49203214 -1.0868689 1266614272
-0.60465187 -0.49193668 -1.0843301 1266614272
-0.59679866 -0.49207696 -1.0815525 1266614272
-0.59176397 -0.48894 -1.08004 1266614272
-0.4092775 -0.4921822 -1.080245 1266614272
-0.40466711 -0.4921034 -1.0817634 1266614272
-0.39623889 -0.49214023 -1.084777 1266614272
-0.38963515 -0.49164689 -1.0873486 1266614272
0.38856983 -0.49204835 -1.0869055 1266614272
0.39599103 -0.49183217 -1.0840991 1266614272
0.40455595 -0.49235821 -1.0810921 1266614272
0.58967799 -0.4889501 -1.08006 1266614272
0.5960024 -0.49193555 -1.0820107 1266614272
0.60519391 -0.49237755 -1.0853018 1266614272
0.61062777 -0.49124849 -1.0874724 1266614272
-0.61118865 -0.48479587 -1.0872149 1266614272
-0.60497713 -0.48376966 -1.0849118 1266614272
-0.59646779 -0.4840045 -1.081905 1266614272
-0.59191269 -0.48486468 -1.08031 1266614272
-0.41023999 -0.4834117 -1.08041 1266614272
-0.40392214 -0.48417738 -1.082477 1266614272
-0.39546132 -0.48404631 -1.0855329 1266614272
-0.39043278 -0.48508319 -1.087384 1266614272
0.38931468 -0.48482516 -1.0870166 1266614272
0.39594448 -0.4837867 -1.0845783 1266614272
0.40451375 -0.48436704 -1.0815394 1266614272
0.40925449 -0.48166108 -1.0801799 1266614272
0.58987325 -0.48386326 -1.080415 1266614272
0.59476262 -0.48429418 -1.0820172 1266614272
0.60287791 -0.48377636 -1.0849291 1266614272
0.609074 -0.48479399 -1.0872101 1266614272
-0.60944003 -0.47635612 -1.087235 1266614272
-0.60347438 -0.47592637 -1.085054 1266614272
-0.59535336 -0.47647542 -1.0821569 1266614272
-0.58946264 -0.4748446 -1.0804321 1266614272
-0.41138342 -0.47533453 -1.0807663 1266614272
-0.40405136 -0.47623533 -1.0831211 1266614272
-0.39571258 -0.47591156 -1.0862237 1266614272
-0.39099252 -0.47870153 -1.08777 1266614272
0.38996431 -0.47689152 -1.0874256 1266614272
0.3957071 -0.47584233 -1.0853575 1266614272
0.40400413 -0.47617358 -1.0824006 1266614272
0.41027269 -0.47505283 -1.0804986 1266614272
0.58868051 -0.47528341 -1.0807946 1266614272
0.59544152 -0.47656187 -1.0829051 1266614272
0.6034193 -0.47577131 -1.0859051 1266614272
0.60866702 -0.47763407 -1.0877399 1266614272
-0.60857546 -0.4701665 -1.087575 1266614272
-0.60326278 -0.4677411 -1.0859139 1266614272
-0.59558249 -0.46825674 -1.0831633 1266614272
-0.58854216 -0.46692598 -1.0810559 1266614272
-0.417604 -0.46587002 -1.08007 1266614272
-0.41209486 -0.46739659 -1.081556 1266614272
-0.40370825 -0.46839184 -1.0841923 1266614272
-0.39639276 -0.46804059 -1.0868479 1266614272
0.39098102 -0.47023404 -1.0877351 1266614272
0.39574376 -0.46750668 -1.0863087 1266614272
0.40410471 -0.46830043 -1.0832626 1266614272
0.41164267 -0.46729866 -1.0809458 1266614272
0.58355898 -0.46600732 -1.0803866 1266614272
0.5884766 -0.46762693 -1.0817041 1266614272
0.59632325 -0.46830618 -1.0842131 1266614272
0.60349005 -0.46813673 -1.0867909 1266614272
-0.60322058 -0.46013662 -1.0869725 1266614272
-0.59632611 -0.46041262 -1.084515 1266614272
-0.58875299 -0.45943591 -1.0822133 1266614272
-0.58310825 -0.45924354 -1.0805225 1266614272
-0.41827318 -0.45950899 -1.080812 1266614272
-0.41162273 -0.45988989 -1.082847 1266614272
-0.4038265 -0.46023643 -1.0853418 1266614272
-0.39796701 -0.46028966 -1.0873338 1266614272
0.39686951 -0.45987675 -1.0869817 1266614272
0.40353569 -0.46043226 -1.0845613 1266614272
0.41201705 -0.45973682 -1.0819318 1266614272
0.41837168 -0.45825005 -1.0802433 1266614272
0.58124197 -0.46037439 -1.0805371 1266614272
0.58799714 -0.45966715 -1.0827571 1266614272
0.59655285 -0.45994493 -1.0855162 1266614272
0.60267901 -0.46112028 -1.087425 1266614272
-0.60121047 -0.45222849 -1.087635 1266614272
-0.5959363 -0.45248824 -1.0857236 1266614272
-0.58723724 -0.45196155 -1.0830179 1266614272
-0.58005995 -0.45216 -1.0809051 1266614272
-0.57500398 -0.44908997 -1.08009 1266614272
-0.42510176 -0.45029351 -1.0804551 1266614272
-0.41949743 -0.45218891 -1.0816467 1266614272
-0.4118005 -0.45182291 -1.0841293 1266614272
-0.40445507 -0.4525851 -1.0864633 1266614272
-0.399472 -0.45442605 -1.0878301 1266614272
0.39883024 -0.45271203 -1.0875275 1266614272
0.40397632 -0.45249662 -1.0857446 1266614272
0.41181046 -0.45180354 -1.0833395 1266614272
0.41921446 -0.45177543 -1.0811788 1266614272
0.574476 -0.44992468 -1.08041 1266614272
0.58011615 -0.45242038 -1.0814908 1266614272
0.58758348 -0.45174253 -1.0839359 1266614272
0.59520972 -0.45273727 -1.0863234 1266614272
0.60019898 -0.45437604 -1.08772 1266614272
-0.59512842 -0.44497231 -1.0869459 1266614272
-0.58812469 -0.44372657 -1.0849333 1266614272
-0.580733 -0.44414905 -1.0826622 1266614272
-0.57334125 -0.44313112 -1.08091 1266614272
-0.43306836 -0.44146368 -1.0802532 1266614272
-0.42726043 -0.44406527 -1.0811387 1266614272
-0.41994822 -0.44384274 -1.0832506 1266614272
-0.41234741 -0.44398552 -1.0855669 1266614272
-0.40606081 -0.44549355 -1.0872444 1266614272
0.40496951 -0.44509372 -1.0868838 1266614272
0.41208482 -0.44370326 -1.0848744 1266614272
0.41957015 -0.44406855 -1.0825953 1266614272
0.42676589 -0.44356537 -1.0807862 1266614272
0.432282 -0.44067603 -1.08004 1266614272
0.56675601 -0.44081104 -1.0803699 1266614272
0.57248569 -0.44397163 -1.0810946 1266614272
0.5800454 -0.44394171 -1.0832293 1266614272
0.58826578 -0.4438346 -1.0857931 1266614272
0.59445983 -0.44616097 -1.0872681 1266614272
-0.593858 -0.43958199 -1.08771 1266614272
-0.58772105 -0.43603918 -1.0865871 1266614272
-0.57957065 -0.43617991 -1.0841407 1266614272
-0.57185882 -0.43625081 -1.0820775 1266614272
-0.56488818 -0.43468997 -1.0808071 1266614272
-0.44149867 -0.43310237 -1.08034 1266614272
-0.4356246 -0.43562442 -1.0810435 1266614272
-0.42807516 -0.4364894 -1.0826675 1266614272
-0.42043775 -0.4354288 -1.0849773 1266614272
-0.41320291 -0.43696046 -1.0868908 1266614272
-0.40795901 -0.439666 -1.08792 1266614272
0.40711603 -0.43881169 -1.0875534 1266614272
0.41269687 -0.43591806 -1.0864887 1266614272
0.42033616 -0.43582579 -1.0842518 1266614272
0.42786688 -0.43627721 -1.0821414 1266614272
0.4351306 -0.4351308 -1.0806992 1266614272
0.44071999 -0.43232504 -1.0801401 1266614272
0.55726647 -0.43238005 -1.0802801 1266614272
0.56459171 -0.43531942 -1.0811694 1266614272
0.57220358 -0.43651381 -1.0827293 1266614272
0.57951152 -0.43568501 -1.0848962 1266614272
0.5871017 -0.43715736 -1.086943 1266614272
-0.58597702 -0.43032664 -1.0874699 1266614272
-0.5798077 -0.4278312 -1.0863639 1266614272
-0.57220727 -0.42816573 -1.0842307 1266614272
-0.56386328 -0.42815277 -1.0822508 1266614272
-0.55610472 -0.42685205 -1.0810047 1266614272
-0.54996204 -0.42506552 -1.0803649 1266614272
-0.45068768 -0.42549345 -1.08056 1266614272
-0.44431698 -0.42751029 -1.0812393 1266614272
-0.43649924 -0.42808464 -1.0826926 1266614272
-0.427984 -0.42798406 -1.084852 1266614272
-0.42010897 -0.42840585 -1.0869372 1266614272
-0.41431099 -0.43122199 -1.08795 1266614272
0.41410199 -0.43047619 -1.087405 1266614272
0.42026374 -0.42796165 -1.0863076 1266614272
0.4279739 -0.42797396 -1.0842378 1266614272
0.4363296 -0.42791802 -1.0822719 1266614272
0.44390759 -0.42695513 -1.0809729 1266614272
0.44994736 -0.42475569 -1.0804666 1266614272
0.54837596 -0.42492798 -1.080546 1266614272
0.5559184 -0.42733708 -1.0813341 1266614272
0.56379867 -0.42810643 -1.0827484 1266614272
0.57201678 -0.42845207 -1.0847217 1266614272
0.57963818 -0.4279598 -1.0869892 1266614272
0.58550203 -0.43120009 -1.0879 1266614272
-0.57747263 -0.42183667 -1.0873699 1266614272
-0.57172549 -0.42006379 -1.0864339 1266614272
-0.5641619 -0.42010918 -1.0846021 1266614272
-0.55607074 -0.42005715 -1.0829158 1266614272
-0.54797095 -0.41934782 -1.0816821 1266614272
-0.54110193 -0.41860092 -1.0808356 1266614272
-0.53413498 -0.41765356 -1.0801899 1266614272
-0.46706024 -0.41773075 -1.080395 1266614272
-0.45956936 -0.41860837 -1.0811137 1266614272
-0.45221385 -0.41969159 -1.0819523 1266614272
-0.44390801 -0.42001006 -1.0834124 1266614272
-0.43549332 -0.42050013 -1.0851399 1266614272
-0.42842492 -0.42012757 -1.0869864 1266614272
-0.42271301 -0.42271304 -1.08781 1266614272
0.42189968 -0.42189929 -1.0875334 1266614272
0.42816564 -0.42007321 -1.0864577 1266614272
0.43592131 -0.42042798 -1.0844874 1266614272
0.44398209 -0.41978386 -1.0829856 1266614272
0.45217615 -0.4194853 -1.0816138 1266614272
0.45952427 -0.41828707 -1.0808473 1266614272
0.46591899 -0.41764802 -1.08018 1266614272
0.5326978 -0.4180983 -1.08026 1266614272
0.5405466 -0.41938275 -1.0809093 1266614272
0.54790246 -0.4192301 -1.0821006 1266614272
0.55601323 -0.42016542 -1.0833447 1266614272
0.56428778 -0.42011669 -1.085205 1266614272
0.57135981 -0.42007047 -1.0869454 1266614272
0.57695502 -0.42267802 -1.08772 1266614272
-0.56953752 -0.41420904 -1.087685 1266614272
-0.56390905 -0.41329721 -1.0866767 1266614272
-0.55617142 -0.41200498 -1.0854585 1266614272
-0.54820025 -0.4120512 -1.0839943 1266614272
-0.53985232 -0.41149536 -1.082979 1266614272
-0.53201199 -0.41208506 -1.0818056 1266614272
-0.52446079 -0.41200462 -1.081162 1266614272
-0.51595795 -0.4111698 -1.080806 1266614272
-0.50755084 -0.41036007 -1.0807257 1266614272
-0.50029385 -0.41061291 -1.0806015 1266614272
-0.4924255 -0.41052932 -1.08078 1266614272
-0.48404729 -0.41159719 -1.0808266 1266614272
-0.47541943 -0.41202056 -1.0812912 1266614272
-0.46779028 -0.41207406 -1.0820825 1266614272
-0.45989299 -0.41148254 -1.0832907 1266614272
-0.45196754 -0.41193235 -1.0844738 1266614272
-0.44407156 -0.41242677 -1.0857763 1266614272
-0.43701473 -0.41325375 -1.0870275 1266614272
0.43009299 -0.41424146 -1.08777 1266614272
0.43623164 -0.41300482 -1.0867413 1266614272
0.44389957 -0.41226721 -1.085355 1266614272
0.45180461 -0.41178378 -1.0840843 1266614272
0.45993465 -0.41166285 -1.0829523 1266614272
0.46769732 -0.41199213 -1.081867 1266614272
0.47531235 -0.41176066 -1.0812601 1266614272
0.48373052 -0.41138041 -1.0807582 1266614272
0.49238288 -0.41049373 -1.0806849 1266614272
0.50029403 -0.41061276 -1.0806015 1266614272
0.50759655 -0.41039702 -1.0808257 1266614272
